0.6500 -4.5800 3.8600
-1.3400 -0.8600 12.8900
-3.8600 -4.6300 4.2400
-2.2500 -0.6100 12.6200
-3.5800 -4.4400 4.5100
-3.9800 -4.4400 4.6500
-4.1900 -4.3500 4.7800
-4.4000 -4.2500 4.9100
-3.6400 -2.5300 12.5400
2.4400 -2.5800 12.2900
-6.2000 -4.3500 14.9700
4.4200 -2.8700 5.2800
-2.8400 -0.8800 12.5400
-1.4500 -3.4600 12.0900
-1.1000 -4.0600 11.4100
-1.9700 -3.2500 12.0800
0.6400 -5.6300 6.2000
-0.6600 -5.6000 6.3300
-2.5100 -4.0000 6.3100
-3.7700 -4.4800 6.4800
0.9200 -2.0200 13.0700
4.4800 -2.3700 6.5100
-9.1800 -2.1300 12.6900
1.9600 -3.4700 11.6800
0.8400 -5.5500 7.1700
0.1600 -5.8700 7.3300
-2.4900 -4.3100 7.3200
-4.8600 -4.6700 7.4800
4.1600 -1.0600 10.5600
-7.3700 -5.8900 12.4600
1.4300 -5.4400 7.8600
-0.6400 -5.8600 8.0100
-3.2600 -4.6200 8.0500
-5.3400 -4.9000 8.1900
-6.1600 -3.5000 15.4700
-2.4700 -3.3500 11.8000
1.2400 -5.5400 8.5600
-0.6500 -5.7600 8.7000
-2.6500 -4.6300 8.7500
-4.6400 -4.9500 8.9000
-0.1700 -4.6300 10.0800
-6.6500 -4.9200 14.5600
0.4400 -5.5500 9.2500
-2.7500 -4.7000 9.3200
-5.4400 -4.9800 9.4600
-0.0400 -5.2600 9.7800
1.5800 -4.8400 9.6300
-1.1200 -5.0100 9.7700
-3.3700 -4.5500 9.8700
-5.2500 -4.7900 10.0200
-0.6700 -0.9000 13.0400
0.7600 -3.5300 12.1000
0.1300 -4.4000 10.3100
-2.5800 -4.3800 10.4300
-4.8800 -4.4700 10.5700
-6.9000 -4.3600 10.6900
4.4000 -0.6400 10.0100
1.3000 -3.9300 10.8500
-0.0700 -4.3100 11.0000
-0.5800 -4.2900 11.1400
-4.5900 -1.9700 13.5100
-1.5300 -5.4800 3.9000
-0.1000 -4.8600 4.1000
2.1900 -4.1900 4.3600
-6.2200 -4.8600 13.8300
5.2600 -1.7800 4.6600
-4.3700 -1.1400 15.5100
-6.3000 -4.9200 14.1100
-3.7900 -0.4200 16.0900
1.7200 -4.8800 5.3500
2.3800 -4.5800 5.5000
2.9600 -4.0300 5.6400
3.9400 -3.0200 5.7700
4.0700 -2.8600 5.9000
4.2800 -2.6400 6.0300
-5.8300 -4.7000 12.8300
5.5800 -2.3400 6.3500
6.0200 -1.7700 6.4800
1.8800 -4.7900 9.5300
3.7900 -3.4900 9.5500
-5.4600 -3.7400 14.5300
1.7100 -3.3300 12.0600
3.2900 -3.9800 9.5600
1.8800 -5.2400 7.4000
2.1600 -5.1100 7.5400
2.2700 -5.0900 7.6800
2.0100 -5.2400 7.8100
1.5700 -5.3500 7.9300
-6.4600 -5.8200 11.7200
-5.3900 -4.2800 11.6900
-5.2400 -4.3100 12.6900
-5.1800 -4.2300 12.6900
-4.2800 -0.9300 15.9400
-4.7800 -3.7700 12.5500
-4.4700 -3.0500 12.8200
-5.8700 -4.9700 12.5500
-5.6400 -3.9900 14.2500
-5.6100 -3.8700 14.2400
-9.0000 -1.4200 12.0000
5.2800 0.0400 4.7700
-4.7800 -1.2600 13.7100
5.9900 -0.6000 5.5300
-8.7200 -4.8800 11.5500
-4.7500 -1.5600 13.8600
6.1900 -0.8800 6.5100
6.0900 -1.3900 6.7800
6.0100 -0.8800 7.0600
-8.9300 -3.7200 12.0100
-5.0100 -1.9800 14.9300
-4.9300 -2.2800 14.1600
-8.7700 -2.6200 9.3000
-8.9600 -4.5300 12.0200
-7.5900 -4.3100 15.0100
-0.1800 -4.9200 9.9900
-1.7700 -2.7300 12.4100
-6.7800 -3.6200 15.4600
-6.4600 -3.1300 15.6000
0.0900 -3.5000 12.3200
-8.5600 -1.3900 10.4900
-8.6000 -1.8900 15.1700
-5.8100 -1.0400 15.7300
-2.6600 -1.9200 12.5200
-3.8200 -1.6100 12.8200
-8.6100 -4.1800 14.0700
2.5200 -0.2400 12.3300
3.7500 -0.7200 11.1900
-7.3400 -1.0600 15.5200
-5.8700 -3.0000 15.5400
-8.5700 -2.7600 15.2400
1.5800 -0.5400 12.9100
3.7500 -1.2700 11.2400
5.2000 -1.7900 7.1300
-6.7600 -0.6500 15.5300
0.9300 -0.7800 13.1200
-3.2100 -4.8900 3.6600
-7.0200 -1.4900 3.8200
-5.8300 -2.4000 3.9700
-5.9200 -4.5000 4.3300
-7.1400 -4.3600 10.0800
-1.7100 -5.4000 9.2000
-6.6200 -4.7300 8.3300
-1.9000 -5.6600 8.2500
-2.3500 -4.5200 7.3500
-7.6500 -5.5600 11.7600
-8.2200 -3.3100 10.4500
-8.4900 -3.2100 8.9600
-8.6200 -3.0200 9.7700
-7.9100 -3.8900 9.8000
-5.3000 -2.7900 5.9400
-1.9500 -5.1300 7.3800
-1.2900 -5.3100 6.2600
-6.2800 -4.9200 9.1500
-4.2700 -4.3400 6.7100
-1.3200 -5.4900 6.8300
-5.7800 -0.8700 15.8000
-5.4500 -1.5900 5.7000
-4.9900 -0.4400 16.5600
-5.4500 -2.7500 4.3800
-5.5000 -3.3600 4.6700
-5.7200 -0.6600 5.0800
-5.4500 -1.3500 5.4800
-5.7500 -0.5600 5.9000
-8.8700 -2.8000 13.9200
-5.2700 -4.2500 6.8500
-7.9800 -3.0600 7.7600
-8.5000 -2.3000 8.2000
-8.5200 -1.4700 14.8800
-8.7400 -1.2100 8.8700
-8.6600 -1.7800 14.0500
5.4700 0.2900 6.8000
-1.9100 -0.3800 12.6600
-4.5400 -4.2500 6.7500
2.8800 0.2300 3.7000
3.4100 -0.4500 3.6100
-3.8700 -0.3700 3.4000
0.1300 -0.9400 3.4600
2.6600 -1.4100 3.4600
2.5100 -1.5600 3.4800
0.5700 -1.5800 3.4100
-0.2200 -1.3100 3.8100
-1.6100 -1.3200 3.8200
-3.1100 -1.7300 3.3700
-5.3400 -1.6700 3.3500
-6.2000 -1.7200 3.3800
-6.8200 -1.7300 3.4900
-7.3700 -2.3400 6.7500
3.9000 0.1300 3.9400
4.3400 -2.5200 4.4500
2.6700 -3.0500 3.8300
0.8000 -2.9400 3.9200
-1.5500 -2.9100 3.8400
-4.5000 -3.1400 3.3800
-6.5300 -0.6000 6.2200
-4.7200 -3.9500 6.4700
-0.7500 -3.4800 3.9100
-4.7300 -3.5800 3.4400
-7.0200 -0.9200 6.3900
-5.7700 -4.1600 6.8800
-1.7300 -3.8900 3.9100
-4.7700 -4.0800 3.4600
-6.4400 -1.8900 5.9800
-4.7100 -4.3100 7.0600
-0.1900 -4.8900 3.5800
-3.1500 -4.7600 3.5000
-6.1500 -4.5100 3.5600
-7.5100 -1.7700 6.7900
-4.8400 -0.6800 14.4200
