-3.7400 0.2500 17.1200
-3.1400 0.0200 12.5400
-1.9500 -0.9900 12.8000
-6.0100 0.1800 15.5800
0.3900 -1.7800 13.1500
-6.7400 0.3700 15.4900
-5.0900 -0.7000 14.4700
-7.8100 1.1700 11.6300
1.0100 -1.9200 13.0300
-3.9700 0.7400 17.3400
-8.0700 0.7900 14.3200
-6.9900 2.4500 16.5900
0.5200 -1.9900 13.1100
1.9500 -2.0700 12.6200
4.3900 -1.6000 9.3200
-7.4100 1.3100 11.2600
-3.0900 0.6900 17.7200
-2.9900 -0.2000 12.5400
-8.4300 -0.7000 7.6800
-3.8900 0.0000 15.2200
-8.6900 0.2200 10.2200
-2.6500 0.4300 15.6600
-2.6600 2.9000 9.1900
-1.8200 1.7900 17.8700
-5.2700 -1.0900 14.6300
3.9300 -2.2700 10.2800
-4.1300 -0.2000 15.3600
-3.9300 0.0600 15.0700
-1.5000 2.6800 18.1600
2.0800 0.1900 3.5800
2.1000 0.9900 3.8600
4.9500 -1.2600 4.4700
2.2600 1.6800 4.3000
-2.7800 2.3700 10.6800
5.0700 -0.2700 5.0300
-4.8900 -0.2200 13.5500
5.7600 -2.0300 5.5300
3.4500 0.6700 5.4300
4.4700 -1.3100 9.0400
-5.9400 3.3900 15.3700
-8.1200 0.9700 10.7400
5.0600 -0.3100 6.5200
-7.3400 -1.1000 6.3700
5.9000 -1.7400 6.7900
4.0400 0.6300 6.7400
-0.7300 2.6300 16.9800
-0.8000 2.2500 16.6800
4.5300 -0.7200 7.3600
3.9000 0.8400 7.4300
-8.7600 -0.7700 10.7700
-4.7800 -0.6300 13.4000
4.5000 -1.0100 8.7600
4.5300 -1.3200 8.2000
4.1300 0.7200 8.3000
-4.2400 -0.0700 12.8700
-0.8800 2.9700 18.2100
-1.0000 2.7400 18.3900
-6.0000 -1.3300 15.5500
-6.0900 4.7100 16.9400
5.6300 -1.0600 7.0100
-3.3600 -0.6300 12.6800
-4.4900 -1.3300 12.8200
3.1000 -0.4000 11.7400
3.2100 -0.6000 11.6800
3.5000 -0.8800 11.3200
3.7700 -1.1500 10.9300
-5.6900 -0.7100 15.5700
-0.9700 -1.5900 13.0300
-6.8100 3.5600 17.0500
-6.2200 3.1300 16.4900
-2.4400 -1.5200 12.6100
-8.8400 -1.0700 10.5000
0.9700 -0.7200 13.0700
2.4300 -1.5600 12.3700
-3.2100 -1.4700 12.5500
-1.0900 2.3600 10.5900
-6.9300 -0.4300 3.9600
-3.0500 2.7800 8.8700
-4.6300 1.1400 15.6100
-5.3700 2.6600 8.8400
-4.2100 1.3800 16.0700
-5.6000 2.3600 10.4000
-1.7100 2.4400 17.4200
-6.9200 5.3300 17.0800
-6.4400 1.0900 4.1600
-7.1200 3.2200 15.5500
-5.8600 0.9400 4.5300
-4.0300 1.8900 4.6300
-7.5900 3.9700 16.6700
4.5000 -0.6400 6.9400
-6.6700 5.1900 15.5400
-2.8000 2.2900 5.3700
-5.4800 0.9200 5.7500
-8.3200 0.6000 14.0400
-2.1700 2.1000 18.1500
-2.6800 2.6900 6.0700
3.3000 0.9900 10.4600
-7.1900 0.6800 6.7100
-6.8000 1.4100 13.7000
-5.4700 2.6600 8.9800
-9.0500 0.0700 13.3600
-9.2700 -0.9200 13.3700
-8.4000 0.3200 14.8700
1.6300 1.5700 11.2400
-3.1400 2.8300 7.5200
-1.7800 1.9100 11.4700
-8.1000 1.1700 8.1400
-8.6900 -0.1900 8.3300
-8.4000 0.3200 14.4600
-8.5500 0.7000 9.2700
-2.5800 3.7000 8.4700
-9.1200 0.1700 12.5400
-7.9500 1.5600 9.0900
-3.8600 3.1000 3.7900
3.2300 1.5000 9.4300
-1.6600 2.2600 18.6800
-3.1100 1.6200 17.6500
-3.4000 1.8900 11.5100
-2.3500 2.0300 11.1600
0.2300 1.4400 11.9300
-0.0500 3.1900 9.6100
0.3200 2.4600 9.8900
1.4300 2.4300 9.5900
-5.7400 1.4500 3.8300
1.5400 1.8900 10.4100
-2.2600 0.9300 12.2200
-1.3200 1.2600 12.0300
2.1300 0.5800 12.0300
-5.7200 0.8800 14.1400
-1.9900 2.3100 10.8900
4.4000 -0.1300 6.2400
1.4200 0.8800 12.2500
2.8700 1.3600 10.3900
-0.6500 3.7100 9.0800
-1.1500 -0.0800 12.8600
-5.1900 0.8400 13.2300
-5.6800 1.5500 11.9800
0.7800 0.1900 12.8600
-5.3000 1.6700 3.4800
1.9700 2.3000 9.3200
2.2800 -0.1300 12.3100
-1.9000 0.5500 12.4600
-1.9000 3.0100 3.6500
-3.2000 1.4700 15.7900
-5.9500 1.4300 3.7200
-5.5500 1.4900 3.8800
-2.5500 2.0900 17.2700
0.5900 1.9900 11.0200
-1.5100 2.9200 4.5000
-0.4000 3.0200 4.6700
1.1700 2.6200 4.7900
2.7000 1.7300 4.8800
4.0700 0.2800 4.9200
-1.8200 2.4000 17.4200
-4.3500 1.4400 5.0500
-1.8300 2.2000 16.9700
-1.3700 3.5000 5.5500
-0.2800 3.3600 5.6900
0.5100 3.2100 5.8300
1.7800 2.7100 5.9500
-8.0100 1.2500 12.6600
-2.2700 2.5900 10.1600
-5.1600 1.3700 6.0400
-3.2400 1.6400 6.2200
-0.4600 3.6000 6.5600
2.1700 2.6700 6.6500
-5.9000 1.3600 12.3800
-5.6600 1.4400 6.6000
-2.2600 3.7300 6.9700
1.0100 3.2700 7.1100
-7.2900 1.4800 12.6700
-6.4400 1.7500 7.0500
-3.2700 2.2900 7.2700
0.6300 3.4700 7.5500
-7.0900 1.5200 12.8300
-6.6100 2.1200 7.5100
-3.9000 2.2200 7.6800
-0.7400 3.8800 7.9900
2.1500 2.5800 8.0600
-6.0000 1.3600 12.5300
-4.7800 2.5100 8.1200
-1.7400 4.0300 8.4100
1.5800 2.9300 8.5000
-7.3900 1.4400 12.3800
-5.3700 2.6200 8.5500
-2.3600 3.7200 8.8000
-1.9400 2.5500 3.3700
-3.9100 2.7300 3.3500
0.0200 1.5900 3.5600
-2.6600 2.1100 3.6800
0.8700 0.9400 3.7400
-2.4000 1.6300 3.8700
0.3400 0.7000 3.9300
1.2300 -0.2400 3.4100
1.7900 -0.5200 3.4900
1.9300 -0.7300 3.5200
2.6100 -1.1600 3.4700
3.2800 -1.4600 3.5600
3.7300 -1.5800 3.7900
4.3300 -1.6600 4.0800
4.2200 -1.8500 4.0500
3.9900 -2.0500 3.9700
3.6500 -2.2200 3.8700
-7.6400 -1.2100 6.7600
-5.6700 -0.5000 3.3500
-0.6700 -1.7100 3.8400
-6.7100 3.3500 14.7100
-6.7000 0.4400 6.2600
-6.1800 -0.8400 5.8300
-7.2800 -0.7700 6.3600
-1.5400 1.6500 16.2200
-4.7200 0.4900 14.5800
-1.8900 1.1400 15.8700
-6.3000 4.7200 15.1500
-6.0800 3.0100 14.9700
-2.7400 1.5300 15.9200
