3.3468 5.3526 6.4960
4.0284 5.2480 6.4929
2.8582 5.1195 7.2321
2.6305 5.0189 7.3083
3.9529 5.0051 6.2461
2.7207 4.8562 6.9026
3.3690 4.8061 7.6291
-1.8415 4.2921 18.3071
2.9414 4.6916 6.9494
3.8201 4.6978 7.1911
3.0568 4.6163 8.1621
3.0976 4.5694 8.2599
2.8979 4.5236 8.2711
-3.5650 4.1815 6.6386
-1.6311 4.0949 16.9683
-2.8529 4.1855 6.9599
-2.4303 4.0051 17.0447
3.0975 4.4526 7.0412
-2.8399 3.9441 17.2802
4.5426 4.4922 7.0923
-3.0738 3.9156 17.5760
-2.1882 4.0982 7.4255
-2.1977 3.9027 17.5388
-2.5431 4.0750 7.6477
-2.8604 3.8276 17.8122
4.3060 4.3872 7.4139
-3.1866 3.8123 17.1928
3.0101 4.2712 7.2820
-3.0199 3.7925 16.9065
-3.3534 3.8999 7.2676
-3.1194 3.7249 16.9788
-7.9576 3.6181 7.5617
-3.5035 3.6521 17.9367
4.5380 4.2522 6.8077
-3.0507 3.6982 15.8551
-2.3719 3.8620 6.4471
3.9399 4.2011 7.7037
-2.0432 3.6694 17.3255
4.5058 4.1809 6.7802
-3.0911 3.6135 15.5646
-3.9948 3.5238 18.7572
-7.6679 3.4916 7.6331
-2.1129 3.6193 16.1012
-4.3228 3.6588 6.2290
-1.9663 3.7859 7.6575
-2.1511 3.7545 8.3640
-3.5729 3.4798 17.6909
-8.1655 3.4011 7.3419
3.9906 4.0387 7.9092
-2.2835 3.5546 15.7272
-8.3227 3.3692 6.7485
-1.7081 3.6949 7.8921
1.8369 3.7695 14.2846
-3.9796 3.3807 17.9496
4.7632 4.0173 6.8758
-2.3534 3.6154 8.3844
1.4005 3.7353 13.7738
2.6021 3.7716 15.1335
-3.3829 3.3652 18.5579
-4.8620 3.4947 7.6485
3.7449 3.9246 8.7565
1.7482 3.7179 13.6563
3.2784 3.7404 15.3784
-2.3847 3.5822 6.3803
2.5380 3.8239 7.8464
4.4578 3.8929 9.0463
0.1826 3.6253 11.8179
4.6525 3.8210 13.6267
4.0377 3.7836 15.0836
-3.9889 3.2971 18.5779
5.0648 3.9189 7.3442
3.6864 3.8410 8.9672
-0.3585 3.5613 11.2753
5.3387 3.8216 13.1824
4.6847 3.7950 14.5358
-4.2950 3.2285 17.7198
-8.0511 3.2108 7.4816
-1.6061 3.5064 8.7960
-0.4708 3.5391 11.0336
5.2787 3.8218 12.4490
1.1600 3.5385 14.6427
-4.0469 3.2020 17.9478
-7.6512 3.1771 7.6321
-6.3128 3.2556 8.9560
4.9811 3.7770 10.8473
5.4487 3.7738 13.2478
4.1590 3.6780 15.3928
-2.6738 3.4322 6.0999
-2.7733 3.3892 8.0582
-0.8522 3.4525 9.9940
-0.4976 3.4630 12.1891
1.4238 3.4736 15.0822
-3.4576 3.1621 18.5220
4.6683 3.7492 7.7929
2.6972 3.6085 9.7333
1.4783 3.5070 12.6112
-3.3591 3.1846 15.2656
-3.5199 3.1273 18.6987
-1.4794 3.3863 8.0889
-1.3723 3.3562 9.9410
-0.4791 3.3834 12.6074
-3.6610 3.1315 15.3761
-2.5160 3.3626 6.3033
-2.4713 3.2906 8.5422
-1.3749 3.3558 9.9411
-0.8082 3.3092 12.0954
-3.9854 3.1012 15.2819
-4.3044 3.0284 18.1639
3.9848 3.6218 7.0890
-1.3425 3.3258 8.7836
0.4759 3.3858 10.7877
5.7662 3.5847 14.0390
-4.5257 2.9920 17.7857
-8.0266 2.9665 7.6097
-0.6663 3.3020 9.2149
0.8478 3.3585 11.3697
5.1390 3.5104 15.0754
-0.2318 3.1268 19.4819
-6.2206 3.0012 8.1777
0.0321 3.3115 9.9963
2.0245 3.3363 12.9357
4.7318 3.4647 15.4041
0.2474 3.1123 19.7227
-6.1901 2.9980 8.0365
-1.9214 3.1797 10.0972
6.1276 3.5179 13.2196
-2.4311 2.9899 16.9770
-5.6001 2.9846 6.8247
5.0807 3.5395 8.2477
5.4503 3.5124 10.8263
-3.0811 2.9739 14.8628
-4.7770 2.8250 17.3362
-6.0115 2.9244 7.0132
-0.8113 3.1919 8.7277
-1.4583 3.1129 11.2358
0.0924 3.1043 14.2638
-4.9617 2.7876 16.9567
5.5483 3.5296 6.5149
-1.2832 3.1448 8.1829
-2.0493 3.0346 10.2347
3.5869 3.2976 13.4446
-2.2657 2.9149 16.0592
0.1048 2.9591 20.0052
-3.5210 2.9638 8.0952
2.3051 3.2714 9.7411
3.3090 3.2291 13.4181
-4.6845 2.7343 16.8388
-8.7855 2.6775 6.8256
-3.5383 2.9338 8.5732
2.8647 3.2144 10.6312
-3.8048 2.7837 14.8497
-2.3821 2.8173 16.9722
-8.7325 2.6607 6.9985
-0.5968 3.0641 8.6479
5.6337 3.3550 10.8172
-2.5597 2.8238 14.4917
-4.7194 2.6881 16.7714
-2.9869 2.9231 6.2072
-6.5500 2.6956 8.3261
-1.8861 2.8937 10.7215
-2.8891 2.7776 14.0147
4.4148 3.1246 15.8645
-0.3798 2.7973 19.8092
5.4125 3.3063 7.3286
-2.3220 2.8463 10.1727
-3.6714 2.7276 13.6181
2.0419 2.9632 15.9622
-0.9431 2.7582 19.0146
-8.5780 2.5447 7.2363
-7.0333 2.5943 9.4249
6.3057 3.2290 11.9474
-4.3909 2.6104 14.9655
-2.8978 2.6314 17.9327
-2.4396 2.8371 6.6997
-0.7069 2.9320 8.2992
1.0681 2.9619 11.0398
-4.1709 2.5998 14.2988
-5.6438 2.4697 17.0451
-8.5510 2.4781 6.8955
-0.5978 2.8787 8.3295
-2.0898 2.7468 10.6560
-2.8932 2.6427 13.7296
2.2254 2.8848 16.0769
-1.6085 2.6001 19.4279
-8.2738 2.4445 7.5742
5.4139 3.1307 10.1905
6.3816 3.1128 13.8692
-2.0577 2.5946 16.6768
-2.9967 2.7082 6.4138
5.4964 3.1502 7.4909
3.0678 2.9691 11.0752
-2.4625 2.5880 14.0989
-2.0170 2.5647 16.6398
-7.8860 2.4105 6.7514
-0.7798 2.7596 7.9494
3.1198 2.9016 11.1773
-4.4023 2.4446 14.4443
-5.2011 2.3624 16.5377
-3.5276 2.6121 6.3217
-0.7433 2.7318 7.9467
2.9296 2.8645 10.9731
-1.9410 2.5631 14.7457
-1.8752 2.5092 16.5989
-1.3179 2.4733 19.5231
1.8054 2.8328 7.5442
-1.7006 2.5726 11.5165
-4.9974 2.3310 14.9427
-1.4140 2.5126 16.7580
-4.1508 2.5079 6.3963
-0.7420 2.6586 7.8403
3.4529 2.8047 11.8295
-5.3494 2.2983 14.9781
3.5737 2.7219 16.2851
-2.4801 2.3649 19.2095
5.9102 2.9877 7.0306
-2.2538 2.5109 10.6226
6.4977 2.8800 14.2113
1.3228 2.5769 15.8701
-5.7343 2.1646 18.0814
6.3360 3.0221 6.1984
0.1603 2.6160 8.8588
-3.9413 2.3351 12.2897
-4.5049 2.2541 14.9087
3.1134 2.6268 16.3216
-2.6777 2.2828 18.4281
3.9636 2.8303 6.2610
4.8925 2.8246 9.0825
-5.2076 2.2557 12.0523
-5.2628 2.1693 14.9718
-5.8799 2.1141 16.6618
-2.8825 2.2218 19.2210
6.1512 2.8989 6.8331
-6.4842 2.1998 10.5197
-5.2983 2.1735 13.3500
-1.4482 2.3277 15.8102
-6.1033 2.0540 17.3691
3.2590 2.7373 6.0206
-6.9278 2.1874 7.7679
-6.4094 2.1538 10.5864
-0.9839 2.3673 13.2027
0.2949 2.4145 15.2955
2.1912 2.4951 16.5267
-3.5379 2.1339 18.6820
3.7869 2.7349 6.0722
5.8458 2.7998 7.5076
-5.9484 2.1383 10.7101
-3.4694 2.2159 12.4813
-4.5508 2.1011 14.9072
1.9112 2.4454 16.4655
-5.6798 2.0059 18.4043
3.0186 2.6454 6.0274
-6.6670 2.1169 8.1078
-5.7695 2.1115 10.7734
-2.9665 2.1981 12.9538
6.2336 2.6752 15.0226
2.4089 2.4195 16.6228
-3.4361 2.0477 19.4778
4.8877 2.7004 6.4217
-4.8203 2.1260 9.8326
-5.6940 2.0549 12.9064
-5.5272 1.9604 15.0020
1.2459 2.3191 16.3004
-5.6274 1.9165 18.5060
-1.9350 2.3090 6.3697
-0.2263 2.3652 8.0974
-6.4334 1.9792 11.6700
-0.9081 2.2242 13.6529
0.0660 2.2634 15.5461
-1.6352 2.1451 16.8994
-2.2162 2.2628 6.1837
4.9012 2.5819 8.9729
6.4430 2.6150 11.4415
6.8847 2.5999 13.4250
0.2191 2.2043 15.8328
2.7337 2.3186 16.7373
-2.6032 2.2160 6.0762
1.6450 2.4038 7.5415
-6.7643 1.8889 11.3997
-1.1318 2.1641 13.1693
-5.1449 1.9065 15.2591
-6.5919 1.7894 17.0266
-2.7421 2.1679 6.0408
-0.5186 2.2539 7.6226
3.0858 2.3702 11.3794
-5.5208 1.8759 13.6328
-0.4677 2.1126 15.0876
-1.7798 2.0129 16.6920
-3.4883 1.8677 19.7264
6.1970 2.5813 7.0712
-2.2548 2.0634 10.9651
3.3514 2.3203 12.8754
-5.9563 1.7948 14.8375
1.6072 2.1838 16.4015
-3.7511 1.8267 19.1744
-8.2966 1.8083 7.1436
5.8051 2.4638 10.3403
6.8593 2.4922 12.5107
-1.7036 1.9859 14.6573
1.6752 2.1565 16.2936
-6.2615 1.6976 18.3491
6.6737 2.5479 6.4585
-2.3595 1.9905 10.8268
-2.3318 1.9651 13.0009
-1.6967 1.9557 14.7966
1.8185 2.1174 16.3229
-6.1735 1.6437 18.4502
-1.2408 2.0955 6.7620
-7.3209 1.6939 10.9091
3.4365 2.2210 12.8006
-1.7321 1.9174 14.7272
1.5685 2.0732 16.1207
-6.6291 1.5872 18.3250
-7.3636 1.7353 6.8295
1.1175 2.1220 10.2018
-2.5682 1.8722 12.7578
8.4521 2.4614 13.9256
5.8946 2.2579 15.7468
-6.8831 1.5596 17.2476
4.7549 2.3546 6.1018
5.0300 2.3030 9.2437
-2.5329 1.8683 12.7577
7.7228 2.3485 14.1943
1.9234 2.0065 16.1772
-6.6408 1.5178 18.2542
-7.7497 1.6379 7.1916
-7.4565 1.5973 10.8934
7.3872 2.3528 12.3497
8.5354 2.3568 14.1490
1.0376 1.9330 15.7595
-6.8451 1.4892 17.3616
-1.3785 1.9497 6.5191
-2.7870 1.8023 10.3374
-1.7378 1.8069 12.7727
-0.9093 1.8286 14.2886
5.8618 2.1803 15.6924
-6.4165 1.5057 17.6157
5.3220 2.2727 6.1501
-2.8210 1.7665 10.3142
7.0678 2.2499 12.0762
7.3086 2.2468 13.9968
6.1396 2.1361 15.5419
-6.2804 1.4572 18.4507
-1.3086 1.9152 6.5511
-2.6315 1.7355 10.5872
8.0588 2.2627 12.2896
6.9156 2.1629 14.3594
1.5044 1.8488 15.9471
-6.1350 1.3992 18.5092
-7.4375 1.5137 7.2135
-3.6094 1.6312 11.6703
-1.2779 1.7207 13.5886
-5.8413 1.4438 15.2995
-7.8562 1.2984 17.2389
5.5322 2.1815 6.0007
-4.4039 1.5754 10.4362
8.1066 2.1958 12.2518
7.0407 2.1255 14.1792
4.7268 1.9468 15.9828
-3.0536 1.5040 19.5647
0.4518 1.8269 8.7648
3.0807 1.9289 11.3838
-1.1996 1.6787 13.5135
-1.6983 1.5899 15.2101
-7.9670 1.2237 17.1745
2.0170 1.9175 6.5051
6.0405 2.0533 10.3950
-2.5842 1.5684 12.7462
7.4696 2.0527 14.3049
-6.9301 1.2549 16.5601
-4.5996 1.5430 6.1320
5.3491 1.9971 9.6112
-6.9369 1.3015 12.3064
9.1623 2.1398 13.6850
5.6859 1.9028 15.4135
-3.7299 1.3399 19.0251
-7.9680 1.2807 8.7653
6.7540 2.0041 11.2449
8.4368 2.0613 12.8511
-4.6720 1.3320 15.0690
-6.1152 1.2229 16.7946
-6.5747 1.3614 6.5509
2.5517 1.7701 10.4923
-2.8605 1.4435 12.3538
9.3378 2.0597 13.5631
0.5845 1.5682 15.2722
-5.8361 1.1660 18.6857
4.9828 1.8894 8.7478
3.0520 1.7470 11.2672
2.7815 1.6913 13.0386
9.2334 2.0198 14.5561
2.6792 1.6443 16.1445
-2.4628 1.5169 6.0204
-8.0556 1.1628 9.1905
-7.5090 1.1465 11.5179
2.4269 1.6414 12.8445
7.5503 1.8809 14.3451
-1.7792 1.3512 16.4702
-2.7357 1.4648 6.1641
-8.0703 1.1297 9.6457
7.8261 1.9420 11.2063
6.8421 1.8455 13.0604
-7.2069 1.0750 15.3590
-1.9627 1.2915 17.2812
7.3761 1.9579 6.2485
-3.7803 1.2938 10.3744
8.1149 1.9147 11.4059
9.5859 1.9416 13.4566
9.1441 1.8853 14.8131
-8.4362 0.9104 17.6057
7.4437 1.9286 6.1291
5.7160 1.7686 9.7322
-3.3464 1.2599 11.5676
9.0797 1.8834 12.9175
9.1112 1.8592 14.8378
-1.6114 1.2404 17.2190
-3.6427 1.3330 6.4132
-3.6913 1.2264 10.4752
-1.7201 1.2993 12.0519
9.6309 1.8882 13.6643
8.3371 1.7692 15.0034
-8.3643 0.8394 17.8472
-0.1656 1.4310 7.6236
3.1502 1.5353 11.2224
-1.0757 1.2761 13.1869
-5.8741 0.9854 15.2232
-6.7951 0.9051 16.8900
-6.0120 1.1169 6.2143
1.9227 1.4768 9.1044
-7.4619 0.9339 11.7647
7.1961 1.6791 12.9400
9.6089 1.7740 14.5737
-5.1864 0.9719 16.3946
-1.2066 1.1483 17.6376
7.3338 1.7895 5.7728
0.7590 1.3769 9.3067
-1.9461 1.1943 11.4287
3.0108 1.4304 13.1870
-6.2576 0.8966 15.1519
-1.2554 1.1716 16.2387
-1.9653 1.0687 17.8908
2.1773 1.4746 6.2754
5.9145 1.5998 9.9361
-3.2503 1.1119 12.1391
9.6915 1.7357 13.1462
-5.2030 0.9149 15.2535
3.7062 1.3671 16.0046
-1.0500 1.0847 18.0163
5.8138 1.6074 7.4529
7.8918 1.6831 10.6741
8.1786 1.6520 12.8702
-7.2070 0.7817 14.8990
8.5803 1.6005 15.3220
-0.8111 1.0738 17.6308
6.8643 1.6324 7.1920
1.2497 1.2727 10.6537
6.5335 1.5479 11.7700
7.6330 1.5727 13.2031
7.7552 1.5347 14.6748
-5.8163 0.8095 16.1709
-0.2386 1.0501 18.0925
-7.9380 0.8341 7.9197
5.8911 1.4867 10.2852
-3.5063 0.9787 11.6203
-5.9777 0.8011 13.5950
9.6256 1.6024 14.4301
-0.5963 1.0368 15.6152
-8.8212 0.6038 17.6839
7.5425 1.6115 6.4752
5.6647 1.4585 9.8023
6.0429 1.4467 10.9447
3.8701 1.2971 12.8044
10.2526 1.6151 13.9881
-1.3856 0.9733 15.5532
-1.0324 0.9536 17.2999
7.5947 1.5900 5.9165
5.2067 1.3966 9.6420
6.9520 1.4528 11.6101
-5.5644 0.7474 13.8598
-5.5779 0.7196 15.2685
4.2123 1.2221 15.8034
-7.8629 0.5484 17.9359
6.8807 1.4880 7.4477
-2.4455 0.9333 10.5005
-3.2657 0.8736 12.3457
9.2323 1.4960 13.7064
-1.6086 0.8965 15.3611
-0.9298 0.9115 16.1260
-2.9489 0.7619 18.3941
5.8496 1.3969 7.5530
-3.5690 0.8467 10.4994
6.5279 1.3403 12.3270
-4.7234 0.7064 14.6354
-6.5893 0.5865 15.7843
-6.8497 0.5315 17.9290
2.0783 1.1835 6.5602
4.9967 1.3022 9.5076
-3.3718 0.8025 12.2080
9.7300 1.4443 13.8225
-1.2970 0.8414 15.5158
-9.0829 0.4090 17.9348
4.0409 1.2721 6.0690
5.2275 1.2695 8.8335
-3.8141 0.7447 11.4862
2.5465 1.0417 13.3641
-8.3642 0.4317 15.3532
8.7735 1.3588 15.4713
-8.3401 0.3805 18.0761
4.5722 1.2657 6.0306
5.1895 1.2324 8.8342
5.7438 1.2233 10.8112
-5.7826 0.5627 13.7591
7.9089 1.2946 14.6948
-0.7281 0.7896 15.7232
-0.6863 0.7596 17.8929
-1.0473 0.9160 6.4890
2.6280 1.0733 9.6214
-1.4076 0.7895 12.0691
8.4180 1.2876 14.1865
8.5239 1.2611 15.1981
-6.1598 0.4403 17.1527
-2.7579 0.5994 18.7533
6.4153 1.2766 7.2506
-8.0352 0.4326 10.7532
-6.4673 0.4699 13.0809
-2.2256 0.6550 15.0026
-7.8169 0.3823 15.8892
-0.9162 0.6814 17.1990
-2.5754 0.5770 18.9009
7.4517 1.2790 7.1097
2.8472 1.0149 9.7878
-3.7875 0.6018 11.6936
3.7146 0.9729 13.5747
8.8589 1.2130 14.6602
3.1256 0.8963 15.7306
-8.0102 0.2644 18.3152
-4.2834 0.6414 6.4869
2.7720 0.9525 9.5442
-1.5989 0.6980 11.5838
-2.4970 0.6189 13.9256
9.8795 1.2233 14.7825
-1.1934 0.6342 16.1921
-7.5515 0.2686 18.4043
3.8112 1.0113 6.1084
5.2791 1.0695 8.4429
6.9005 1.1132 10.7818
2.2746 0.8430 13.3075
-8.9149 0.1937 15.2982
3.7539 0.8704 15.6031
-8.3932 0.1643 18.2422
3.7199 1.0018 6.0908
5.7590 1.0710 7.8442
-2.1400 0.6204 10.7568
1.6593 0.7641 12.6229
-4.4180 0.4344 14.9002
-7.5647 0.2202 15.7056
-7.9448 0.1818 17.0154
-4.3192 0.3341 18.6805
-0.6707 0.7166 6.9396
4.6102 0.9429 9.5499
1.2745 0.7268 11.6941
-5.0330 0.3497 14.1145
9.6394 1.1148 14.7713
-8.5592 0.1282 16.0202
-8.3153 0.0958 18.3616
2.4176 0.8583 6.1924
2.0131 0.7857 8.0350
-2.2448 0.5265 10.5575
1.7746 0.7298 12.8676
1.4640 0.6392 14.9369
-7.8866 0.1458 15.9498
-6.8127 0.1413 18.2750
-1.4276 0.6214 6.1880
4.9287 0.8751 7.7313
4.7226 0.8806 10.0703
4.0900 0.8313 12.0180
2.7940 0.6970 13.9173
-4.8510 0.2662 15.3102
-1.2407 0.4504 16.5758
-5.9212 0.1553 18.7307
2.2960 0.7770 6.6155
5.0111 0.8499 7.9971
7.0635 0.9423 10.7952
-0.3386 0.5316 13.3233
-6.0100 0.1741 15.1164
-4.8084 0.2310 16.4097
-3.7559 0.2266 18.5162
2.3955 0.7477 6.4014
5.0310 0.8449 7.9930
0.8653 0.5853 10.6552
-6.6099 0.1502 12.9077
0.5704 0.5312 14.2723
-9.1055 -0.0118 15.5815
-8.5851 -0.0405 17.4338
-2.8646 0.2294 18.9755
4.2347 0.8062 6.7543
0.2150 0.5556 8.6108
4.8189 0.7574 10.6496
-6.1398 0.1323 13.2971
1.4845 0.5068 14.5902
3.8536 0.6337 15.0701
-6.7049 0.0106 17.3533
-2.3373 0.2209 19.0347
4.9667 0.8210 7.3192
-8.2024 0.0585 9.7017
4.7536 0.7194 10.7319
-0.3749 0.4189 13.1124
2.8507 0.5790 14.3686
3.5677 0.6059 14.8694
-4.7418 0.0917 16.3301
-2.6319 0.1955 18.5815
-1.1634 0.4589 6.4856
0.2045 0.5179 8.6455
4.3342 0.6612 10.6844
-0.5651 0.3900 12.6282
2.1120 0.4783 14.1475
-2.1838 0.2304 15.3140
-6.9400 -0.0500 17.4141
-6.4853 0.1449 6.2510
6.2953 0.7870 7.7019
8.5209 0.8714 9.3421
-3.7658 0.1858 12.0359
4.7563 0.5930 13.7068
-6.0696 -0.0049 15.1495
-5.3496 0.0296 16.2856
-2.9850 0.1136 18.3822
3.6746 0.6506 6.1232
5.1783 0.6691 8.0438
-7.9914 -0.0536 10.6381
5.3403 0.6177 12.3559
4.9637 0.5767 13.5942
-9.4842 -0.2069 15.4862
-8.5317 -0.2181 17.6970
3.8077 0.6446 5.9207
4.6650 0.6425 7.4669
8.4360 0.8043 8.9585
7.3090 0.6945 11.5877
-4.3841 0.0478 14.2617
-8.0860 -0.1932 15.8012
-2.3111 0.0762 17.5165
-2.9465 0.2262 6.1935
2.1225 0.4718 7.2242
7.8654 0.7798 8.4876
8.5438 0.7262 11.4753
-9.6317 -0.2964 15.1327
-5.0922 -0.0822 16.1930
-3.0886 -0.0134 18.2315
7.3273 0.7331 5.9965
4.7883 0.6092 7.6447
7.0693 0.6496 9.6238
0.0121 0.2510 12.8858
-7.9465 -0.2161 15.7996
-6.0832 -0.1693 17.1527
-5.8152 0.0067 6.1469
4.3387 0.5323 6.8877
7.7318 0.6707 8.5146
7.2294 0.5952 11.0635
-9.5939 -0.3641 15.1082
-4.4588 -0.1437 16.4637
-3.2174 -0.0913 18.2817
7.3328 0.6650 6.0523
-0.1509 0.2523 8.0929
-2.0980 0.0837 10.4347
-3.8517 -0.0642 14.2762
-8.8683 -0.3944 16.2929
-3.7784 -0.1570 18.3500
-0.9298 0.1794 6.8228
8.2804 0.6389 8.0153
-7.8120 -0.2607 10.9505
-5.3435 -0.1475 13.5913
-9.0290 -0.4181 16.1672
-3.3291 -0.1645 18.1442
-1.5750 0.1220 6.2319
1.9358 0.2728 7.9503
-1.5566 0.0360 10.7652
-2.9932 -0.1313 14.8265
-5.5680 -0.2447 16.1194
-8.5990 -0.4771 18.2177
-3.3770 -0.0059 6.2658
8.2340 0.5719 7.7355
-3.9804 -0.1195 10.4052
-5.4490 -0.2285 13.4535
-5.4950 -0.3079 16.0658
-8.7697 -0.5258 18.4680
-3.4779 -0.0486 6.2951
-0.4304 0.0813 7.8194
7.0614 0.4287 10.1558
-5.5918 -0.2688 13.3176
-8.9870 -0.5285 16.2002
-8.7660 -0.5617 18.5211
1.1960 0.1727 6.2739
7.2830 0.4401 8.3619
0.2028 0.0197 10.9136
-8.2916 -0.5047 15.0284
-3.9415 -0.2895 16.7985
3.1049 0.2345 5.8369
1.7479 0.1551 6.9007
0.0242 0.0109 9.0633
-0.3008 -0.0342 11.4907
-7.6959 -0.5275 16.0110
-8.4953 -0.6091 18.0717
1.2488 0.0943 6.2549
6.4749 0.3503 8.1784
-3.9410 -0.2560 10.3196
-4.0048 -0.2928 13.5420
-3.4588 -0.3424 16.1141
-7.5885 -0.6151 19.0338
2.0167 0.0777 6.8059
7.0581 0.3467 8.8235
-7.1000 -0.4877 11.9376
-9.0167 -0.6691 16.1387
-4.8394 -0.4933 18.3663
2.0177 0.0798 6.6540
7.0160 0.3012 8.5440
7.5127 0.2552 11.2929
-5.7158 -0.5242 15.9629
-6.6732 -0.6192 18.0971
4.7110 0.1689 6.4359
3.7041 0.0707 8.6906
7.5621 0.2226 11.2906
-9.0137 -0.7096 16.1616
-4.6715 -0.5530 18.2812
4.7146 0.1514 6.4597
6.5725 0.1824 8.8726
-6.4443 -0.5434 12.5720
-8.8295 -0.7474 16.3646
-2.5077 -0.2735 6.0325
-0.5109 -0.2090 8.1324
-1.1705 -0.2516 10.3264
-5.2937 -0.5996 15.3861
-8.3460 -0.8122 18.1067
-1.5446 -0.2431 6.5567
3.4729 -0.0527 9.0118
4.3295 -0.1056 12.6120
-8.8218 -0.8401 16.4461
-8.5273 -0.8714 18.8691
2.8326 -0.0772 6.7220
-0.4859 -0.3093 9.7426
4.3575 -0.1136 12.8303
-4.0029 -0.6189 17.2141
6.8590 0.1445 5.7446
-7.7894 -0.6886 7.8529
-1.9828 -0.3967 9.9319
-4.0295 -0.6388 15.1644
-4.0339 -0.6742 17.2492
-6.3358 -0.6205 6.3599
-0.5509 -0.3591 8.5165
8.8124 0.0929 10.5127
-9.2719 -0.9167 15.4664
-4.6798 -0.7527 17.7257
4.2175 -0.0495 6.0922
3.9429 -0.1598 8.5732
7.5721 -0.0093 11.0060
-4.4642 -0.7403 15.8356
-7.2757 -0.9412 18.6187
4.7211 -0.1394 6.7569
-1.0713 -0.4811 9.7917
-4.2231 -0.7531 15.0757
-5.4419 -0.8457 16.8253
-1.9589 -0.4963 6.3529
3.9963 -0.2284 8.6387
-6.7307 -0.8333 11.9465
-9.2822 -1.0653 15.9637
-7.3241 -1.0139 18.6191
-0.9568 -0.4691 6.9876
-0.8869 -0.5448 9.9578
-4.6684 -0.8566 15.0139
-9.3601 -1.1116 16.6920
-1.3919 -0.5293 6.4763
8.5950 -0.0459 8.0291
8.2840 -0.1185 10.9442
-6.1936 -0.9509 15.1832
-5.1669 -0.9501 17.5305
2.8996 -0.3514 6.5868
-1.5690 -0.6344 9.3529
4.6527 -0.3665 12.2576
-9.0422 -1.1715 16.6665
-5.5902 -0.8259 6.3025
-0.7036 -0.5780 7.0469
-3.1628 -0.7410 9.7569
-4.8314 -0.9548 15.0100
-4.7237 -0.9696 17.1280
3.3198 -0.3923 6.2091
2.2020 -0.4674 7.0678
-7.3534 -1.0396 10.8438
-4.3695 -0.9559 15.1894
-5.3373 -1.0641 17.5331
-1.2121 -0.6405 6.4331
6.1392 -0.3231 8.4586
8.6863 -0.2278 10.4379
-6.1863 -1.0981 15.1673
-7.3976 -1.2072 17.5338
-1.2856 -0.6878 6.2597
4.5847 -0.4325 8.0941
4.4960 -0.4446 10.9518
-6.5009 -1.1614 15.7654
4.5436 -0.4250 5.7805
4.7667 -0.4241 6.9177
-7.6107 -1.1413 9.9053
-4.9853 -1.1035 15.0797
-7.8059 -1.3029 17.7547
1.3441 -0.6435 6.7212
-2.0589 -0.8484 9.0510
4.0929 -0.5999 11.0351
-7.1301 -1.2557 16.0234
5.7030 -0.4369 5.9068
-1.6900 -0.8649 8.0220
-1.1700 -0.8640 9.3843
-5.9719 -1.2255 15.0871
-7.8399 -1.3733 17.6751
-0.7118 -0.8068 6.4477
4.1972 -0.5989 8.0250
-7.2149 -1.2136 10.5207
-5.5697 -1.2440 15.5416
-6.1254 -1.2858 17.6969
1.1672 -0.7652 6.9783
-2.2431 -0.9705 8.6000
8.4218 -0.4527 10.4782
-8.2199 -1.4333 16.1610
6.9624 -0.4693 5.7653
2.8948 -0.7037 6.9595
-1.5080 -0.9382 8.6099
7.4712 -0.5344 10.3139
-7.6693 -1.4435 15.8540
-1.8767 -0.9752 5.9617
1.8307 -0.8005 6.9720
2.9155 -0.7818 8.9485
4.8283 -0.7363 11.7897
-9.3327 -1.5744 16.7773
-2.5506 -1.0541 6.4026
4.3818 -0.7210 7.9055
4.0656 -0.7398 9.3970
4.1522 -0.7650 11.3574
-8.4915 -1.5562 16.3037
0.7650 -0.9036 6.2100
-7.2600 -1.3424 7.9631
4.1797 -0.8025 9.4684
4.1054 -0.8146 11.0303
-9.9912 -1.6782 16.7392
-4.2994 -1.2161 6.5309
-7.2209 -1.3747 8.0312
4.3982 -0.8220 9.6501
-5.8495 -1.4569 15.2324
-5.7102 -1.4828 17.2236
-4.0144 -1.2402 6.6238
-7.1672 -1.4378 8.3084
4.5062 -0.8617 9.7169
-5.9849 -1.4773 15.3418
-7.0087 -1.5833 18.0728
2.6758 -0.9295 6.8707
8.7778 -0.6385 8.3551
4.1579 -0.9351 10.8963
-7.0691 -1.6203 17.2686
-0.5392 -1.1266 6.5412
5.3404 -0.8470 8.0134
4.7072 -0.9346 9.8843
-7.3264 -1.6288 15.8764
2.8646 -0.9761 6.1643
4.4942 -0.9035 7.1627
-6.9599 -1.5502 9.2449
5.1603 -0.9556 10.3469
-7.8163 -1.7261 17.8183
-3.7777 -1.3752 7.0002
4.7534 -0.9437 8.3151
4.8315 -0.9653 9.8625
-7.9126 -1.7701 16.1143
2.2085 -1.0548 6.3414
-6.7173 -1.5807 8.0801
-3.2429 -1.4285 9.3975
5.1938 -1.0101 10.3306
-6.5190 -1.7613 17.7574
7.8617 -0.8280 6.6033
4.8161 -1.0108 7.8092
7.1307 -0.9221 9.4993
-9.1771 -1.8958 15.6912
-4.9474 -1.5335 6.5757
-6.3459 -1.6267 7.6109
-6.5071 -1.6596 8.9820
4.0862 -1.1405 10.6768
-8.0716 -1.9224 18.2553
-3.5525 -1.5068 7.1652
3.0867 -1.1777 8.1300
-4.2646 -1.6007 10.0956
-6.5194 -1.8579 17.5956
3.8434 -1.1252 6.5253
4.5780 -1.1558 7.9085
5.0004 -1.1438 9.5400
-8.0743 -1.9505 16.0708
-2.9809 -1.5370 6.6463
3.4947 -1.2203 7.8119
-5.8162 -1.7132 9.6225
-9.0619 -1.9999 15.8255
-3.0133 -1.5742 6.6668
-1.4346 -1.5021 7.8269
8.6741 -0.9895 8.8838
-8.1692 -2.0097 15.2481
7.6078 -1.0150 6.3637
4.7495 -1.1996 7.6162
-3.5148 -1.6904 9.5075
-9.0726 -2.0986 15.5789
3.8556 -1.2874 6.8626
-6.2405 -1.8496 8.5491
5.3029 -1.2853 10.6427
7.2928 -1.1304 6.1994
-6.1223 -1.8797 8.6123
5.3372 -1.2908 9.9159
-5.9518 -1.8720 6.8573
5.6443 -1.2868 8.0127
7.4087 -1.2104 9.4846
7.0836 -1.2098 6.1120
8.4422 -1.1699 7.7329
8.1770 -1.1900 9.4231
3.7242 -1.4195 6.0369
-0.7608 -1.6604 7.8006
-5.2600 -1.9581 9.5637
-0.9257 -1.6971 5.9885
7.9170 -1.2492 6.8392
-5.4530 -1.9502 8.5899
-4.7761 -1.9730 9.8969
4.8225 -1.4048 6.3491
-6.2362 -2.0488 7.9850
-3.5352 -1.9299 9.3289
-4.7618 -1.9721 6.1925
-3.9193 -1.9490 7.2832
8.4525 -1.2924 8.0807
5.0984 -1.5468 10.9255
1.2936 -1.6993 6.6773
-6.1680 -2.1056 7.9466
-4.8543 -2.0440 9.5481
-5.9043 -2.0750 6.4668
-0.8647 -1.8418 7.5559
6.6709 -1.4896 8.5948
-8.7427 -2.4257 15.2662
-3.2956 -2.0153 6.9573
5.9007 -1.5518 7.9201
7.9665 -1.4316 9.0409
-6.0005 -2.1768 6.5735
-2.3261 -2.0124 7.6273
-3.6878 -2.0994 8.7008
-8.4869 -2.4828 15.4817
2.4059 -1.7852 6.8806
6.1537 -1.5883 8.0857
-7.8890 -2.4798 14.9355
7.1823 -1.5606 6.4040
8.1561 -1.5328 7.5965
-8.2936 -2.5383 15.0537
7.3220 -1.5905 6.5037
-3.5866 -2.1990 8.4265
-4.6805 -2.2369 6.1060
1.2914 -1.9483 6.8535
-5.0488 -2.2879 8.6049
6.0642 -1.7049 6.3005
-5.8008 -2.3770 8.0069
4.5840 -1.8795 10.9726
1.2872 -2.0177 6.8121
-5.2273 -2.3827 8.3643
3.6467 -1.9143 6.0413
-2.1611 -2.2444 7.3839
5.1586 -1.9237 10.6366
-1.8754 -2.2579 7.0935
3.7847 -1.9871 8.3717
1.2930 -2.1192 6.6352
6.5797 -1.8536 7.8210
-4.2401 -2.4390 6.3664
6.0712 -1.9151 7.2096
4.7639 -2.0535 10.8359
-2.9538 -2.4206 7.0962
-3.5043 -2.4738 8.3558
-1.4344 -2.3472 6.5161
4.2664 -2.0537 7.5481
1.6721 -2.2273 6.2696
4.0524 -2.1606 9.3400
-3.8773 -2.5848 8.5588
3.9315 -2.2131 7.7637
-5.8185 -2.7353 7.9585
-3.2342 -2.6585 7.7614
-3.3619 -2.6896 8.0836
4.0908 -2.3509 8.1094
-3.6621 -2.7719 8.4079
5.2571 -2.3545 9.3997
-3.9709 -2.8807 6.3759
4.4315 -2.5182 8.5859
-5.8963 -3.0553 6.2043
-3.7099 -3.0045 7.6700
-4.3111 -3.1125 8.3861
-5.8349 -3.2494 7.7066
-3.9438 -3.2184 7.6043
-3.9904 -3.2392 6.2746
-4.2980 -3.3279 7.4046
-4.5121 -3.3979 8.2165
-4.5508 -3.4683 8.0010
-4.9866 -3.5443 6.4091
-4.8463 -3.6613 8.1185
-4.7784 -3.7229 7.0993
-5.7749 -3.9079 7.4811
-5.6000 -4.1520 7.8911
-1.6056 0.9585 15.4081
4.0272 0.4909 6.4176
-1.3233 -0.6706 6.2088
4.6087 -1.0100 8.3717
4.9524 -1.5333 8.3707
