3.2027 4.8938 5.9150
3.8775 4.7537 5.9375
2.6777 4.7008 6.6375
2.4426 4.6138 6.7075
3.7977 4.5104 5.6925
2.5377 4.4388 6.3080
3.1575 4.3688 7.0575
-2.4323 4.3338 17.5545
2.7477 4.2638 6.3654
3.6168 4.2287 6.6375
2.8177 4.2059 7.5825
2.8527 4.1588 7.6825
2.6505 4.1238 7.6875
-3.7623 4.0888 5.8366
-2.1873 4.1001 16.2275
-3.0623 4.0618 6.1825
-2.9923 4.0537 16.2775
2.8877 4.0188 6.4667
-3.4123 4.0188 16.4996
4.3303 3.9837 6.5675
-3.6573 4.0082 16.7875
-2.4193 3.9488 6.6725
-2.7823 3.9488 16.7811
-2.7823 3.9485 6.8825
-3.4570 3.9138 17.0325
4.0777 3.8974 6.8825
-3.7623 3.9036 16.4025
2.7827 3.8469 6.7075
-3.5873 3.8696 16.1225
-3.5873 3.8087 6.4775
-3.6926 3.8087 16.1925
-8.2073 3.7738 6.6156
-4.1123 3.7746 17.1375
4.3227 3.7388 6.2872
-3.5873 3.7568 15.0725
-2.5820 3.7037 5.6925
3.6927 3.7364 7.1625
-2.6332 3.7037 16.5775
4.2877 3.6688 6.2598
-3.6223 3.6688 14.7823
-4.6373 3.6880 17.9425
-7.9273 3.6337 6.6992
-2.6639 3.6337 15.3525
-4.5323 3.5987 5.4100
-2.2223 3.6298 6.9175
-2.4323 3.6217 7.6175
-4.1823 3.6014 16.8925
-8.4189 3.5638 6.3925
3.7277 3.5755 7.3725
-2.8249 3.5709 14.9740
-8.5573 3.5287 5.7946
-1.9773 3.5300 7.1625
1.3477 3.5421 13.6725
-4.6023 3.5287 17.1385
4.5327 3.4938 6.3672
-2.6423 3.4938 7.6333
0.9277 3.5210 13.1475
2.0827 3.5206 14.5475
-4.0282 3.4938 17.7675
-5.1273 3.4904 6.8125
3.4477 3.4908 8.2125
1.2777 3.4832 13.0425
2.7477 3.4587 14.8163
-2.6073 3.4237 5.6302
2.2687 3.4358 7.2628
4.1477 3.4274 8.5275
-0.2273 3.4372 11.1525
4.1827 3.4336 13.1125
3.5177 3.4565 14.5475
-4.6373 3.4579 17.7675
4.8126 3.3888 6.8475
3.3777 3.4144 8.4225
-0.7523 3.3911 10.5925
4.8827 3.3898 12.6925
4.1827 3.4235 14.0225
-4.9173 3.3888 16.9006
-8.3195 3.3705 6.5394
-1.9162 3.3538 8.0725
-0.8573 3.3702 10.3475
4.8477 3.3790 11.9575
0.6477 3.3538 14.0108
-4.6788 3.3538 17.1375
-7.9273 3.3188 6.7043
-6.6323 3.3527 8.0725
4.6027 3.3190 10.3475
4.9877 3.3376 12.7625
3.6227 3.3507 14.8625
-2.8942 3.2837 5.3425
-3.0623 3.2837 7.2966
-1.2073 3.2837 9.2969
-0.9273 3.3179 11.5025
0.8927 3.2837 14.4603
-4.1123 3.2942 17.7325
4.3927 3.2488 7.2849
2.3522 3.2488 9.1575
1.0327 3.2666 11.9925
-3.9023 3.2488 14.4817
-4.1823 3.2661 17.9075
-1.7721 3.2137 7.3725
-1.7297 3.2137 9.2275
-0.9273 3.2455 11.9225
-4.2102 3.2137 14.5825
-2.7473 3.2099 5.5525
-2.7825 3.1788 7.7925
-1.7323 3.2134 9.2275
-1.2423 3.1788 11.4007
-4.5323 3.1986 14.4775
-4.9523 3.1981 17.3475
3.7277 3.1438 6.5600
-1.6623 3.1595 8.0725
0.0877 3.1629 10.1375
5.2677 3.1474 13.5675
-5.1623 3.1661 16.9625
-8.3123 3.1278 6.6725
-1.0033 3.1087 8.5275
0.4377 3.1274 10.7325
4.6027 3.1260 14.5825
-0.9273 3.1087 18.8049
-6.5273 3.0789 7.3025
-0.3323 3.0967 9.3325
1.5577 3.0738 12.3388
4.1827 3.1080 14.8975
-0.4580 3.0738 19.0625
-6.4923 3.0714 7.1625
-2.2923 3.0692 9.3675
5.6527 3.0460 12.7625
-3.0445 3.0388 16.2275
-5.8630 3.0038 5.9725
4.7777 3.0266 7.7575
5.0577 3.0299 10.3475
-3.6223 3.0161 14.0925
-5.4067 3.0038 16.5075
-6.2832 2.9688 6.1475
-1.1373 2.9970 8.0375
-1.8723 3.0002 10.5225
-0.4279 2.9688 13.6025
-5.5801 2.9688 16.1225
5.3027 2.9589 6.0425
-1.5923 2.9641 7.4775
-2.4323 2.9337 9.5029
3.0977 2.9633 12.9025
-2.8523 2.9376 15.3175
-0.6180 2.9337 19.3425
-3.8323 2.8988 7.3149
1.9427 2.9328 9.1575
2.8177 2.9089 12.8675
-5.3023 2.8988 16.0153
-9.0584 2.8638 5.8675
-3.8673 2.8789 7.7925
2.4680 2.8638 10.0675
-4.3542 2.8638 14.0575
-3.0046 2.8638 16.2275
-9.0123 2.8476 6.0425
-0.9273 2.8566 7.9675
5.2327 2.8629 10.3475
-3.0973 2.8319 13.7425
-5.3373 2.8532 15.9475
-3.2373 2.7938 5.4477
-6.8773 2.7938 7.4446
-2.2934 2.7938 9.9975
-3.4123 2.7938 13.2552
3.8327 2.7938 15.3525
-1.1036 2.7938 19.1325
5.1277 2.7587 6.8547
-2.7123 2.7587 9.4347
-4.1823 2.7771 12.8325
1.4527 2.7587 15.3701
-1.6409 2.7689 18.3196
-8.8723 2.7283 6.2875
-7.4023 2.7391 8.5275
5.8583 2.7237 11.5025
-4.9523 2.7237 14.1558
-3.5617 2.7237 17.1725
-2.7123 2.6888 5.9604
-1.0323 2.7237 7.6175
0.6477 2.7135 10.4175
-4.7106 2.6888 13.4975
-6.2807 2.6888 16.1925
-8.8373 2.6538 5.9491
-0.9273 2.6654 7.6525
-2.5023 2.6565 9.9275
-3.4139 2.6538 12.9725
1.6277 2.6730 15.4925
-2.3273 2.6538 18.7121
-8.5855 2.6188 6.6375
5.0227 2.6384 9.7175
5.8627 2.6408 13.4275
-2.6826 2.6188 15.9475
-3.2655 2.5838 5.6575
5.1977 2.6016 7.0225
2.6427 2.6168 10.5225
-2.9995 2.5838 13.3575
-2.6423 2.5861 15.9125
-8.1723 2.5487 5.8295
-1.1023 2.5487 7.2685
2.6875 2.5487 10.6275
-4.9547 2.5487 13.6375
-5.8273 2.5487 15.7028
-3.7973 2.5138 5.5487
-1.0673 2.5190 7.2675
2.5027 2.5176 10.4175
-2.5023 2.5441 14.0225
-2.5023 2.5225 15.8775
-2.0473 2.5138 18.8196
1.4954 2.4788 6.9525
-2.1523 2.4788 10.8040
-5.5716 2.4760 14.1167
-2.0473 2.5049 16.0525
-4.4273 2.4438 5.6033
-1.0663 2.4438 7.1625
2.9927 2.4470 11.2925
-5.9258 2.4625 14.1404
2.9577 2.4438 15.7504
-3.2023 2.4603 18.4675
5.6177 2.4088 6.5799
-2.6773 2.4289 9.8925
5.9546 2.4088 13.7775
0.7177 2.4088 15.2597
-6.4223 2.4088 17.2302
6.0727 2.4049 5.7625
-0.2026 2.3737 8.2125
-4.4273 2.3738 11.5025
-5.0830 2.3728 14.1013
2.4920 2.3737 15.7725
-3.3773 2.3737 17.6813
3.6927 2.3387 5.7456
4.5237 2.3387 8.5975
-5.6873 2.3562 11.2225
-5.8460 2.3290 14.1393
-6.5222 2.3387 15.8075
-3.6118 2.3387 18.4675
5.8602 2.3038 6.3925
-6.9123 2.3376 9.6475
-5.8262 2.3038 12.5175
-2.0590 2.3038 15.1075
-6.7723 2.3040 16.5075
2.9927 2.2780 5.4825
-7.2623 2.2954 6.8825
-6.8423 2.2891 9.7175
-1.5051 2.2688 12.5175
-0.2973 2.2894 14.6525
1.5577 2.2944 15.9475
-4.2523 2.2749 17.9075
3.5177 2.2490 5.5525
5.5273 2.2338 7.0575
-6.3873 2.2519 9.8575
-3.9692 2.2338 11.7125
-5.1368 2.2224 14.1008
1.2777 2.2582 15.8775
-6.3873 2.2538 17.5575
2.7477 2.1990 5.4825
-7.0173 2.2180 7.2325
-6.2123 2.2170 9.9275
-3.4842 2.1988 12.2025
5.6527 2.2338 14.5825
1.7677 2.2093 16.0525
-4.1823 2.1988 18.7078
4.6027 2.1637 5.9407
-5.2323 2.1637 9.0203
-6.2123 2.1976 12.0625
-6.1220 2.1348 14.1639
0.6127 2.1637 15.6915
-6.3432 2.1637 17.6625
-2.2255 2.1288 5.6575
-0.5758 2.1288 7.4425
-6.9123 2.1368 10.8025
-1.4523 2.1307 12.9725
-0.5423 2.1553 14.8975
-2.2923 2.1522 16.1925
-2.5023 2.0938 5.4626
4.5233 2.0938 8.4925
5.9800 2.0938 11.0125
6.3527 2.0938 13.0102
-0.4023 2.0938 15.1904
2.0827 2.0938 16.1800
-2.8873 2.0652 5.3425
1.3127 2.0588 6.9517
-7.2382 2.0588 10.5225
-1.6623 2.0730 12.4825
-5.7520 2.0660 14.4351
-7.2623 2.0588 16.1528
-3.0273 2.0238 5.3031
-0.8573 2.0238 6.9598
2.6186 2.0238 10.8375
-6.0736 2.0238 12.7975
-1.0673 2.0238 14.4234
-2.4365 2.0238 15.9825
-4.2523 2.0266 18.9575
5.8810 1.9888 6.6375
-2.7136 1.9888 10.2425
2.8303 1.9888 12.3425
-6.5534 1.9888 13.9875
0.9627 2.0117 15.8075
-4.4980 1.9888 18.3975
-8.6273 1.9765 6.2175
5.3727 1.9550 9.8925
6.3527 1.9700 12.0975
-2.2929 1.9537 13.9525
1.0327 1.9788 15.7025
-6.9823 1.9753 17.4875
6.3758 1.9188 6.0425
-2.8173 1.9188 10.1019
-2.8647 1.9339 12.2758
-2.2923 1.9258 14.0925
1.1727 1.9328 15.7375
-6.9008 1.9188 17.5925
-1.5573 1.8869 6.0775
-7.7873 1.8838 10.0162
2.9125 1.8838 12.2725
-2.3273 1.8881 14.0225
0.9277 1.8979 15.5275
-7.3542 1.8838 17.4525
-7.6893 1.8488 5.9375
0.6810 1.8562 9.5965
-3.0973 1.8488 12.0263
7.8927 1.8832 13.5675
5.2677 1.8488 15.3016
-7.5726 1.8488 16.3675
4.4627 1.8193 5.6225
4.6279 1.8138 8.7725
-3.0623 1.8431 12.0275
7.1498 1.8138 13.8125
1.2764 1.8138 15.5975
-7.3671 1.8138 17.3825
-8.0921 1.7787 6.2875
-7.9273 1.7941 9.9975
6.8777 1.8001 11.9575
7.9627 1.7787 13.7955
0.4027 1.7787 15.1505
-7.5423 1.7787 16.4840
-1.6942 1.7438 5.8325
-3.2373 1.7438 9.6013
-2.2725 1.7404 12.0713
-1.4960 1.7480 13.6145
5.2327 1.7720 15.2475
-7.1223 1.7777 16.7525
5.0227 1.7088 5.6920
-3.2723 1.7094 9.5775
6.5627 1.7088 11.6749
6.7377 1.7301 13.6025
5.5127 1.7104 15.1075
-7.0173 1.7382 17.5925
-1.6273 1.7063 5.8675
-3.0941 1.6738 9.8575
7.5452 1.6738 11.9225
6.3287 1.6738 13.9525
0.8577 1.6738 15.3557
-6.8773 1.6738 17.6570
-7.7878 1.6388 6.3225
-4.1123 1.6417 10.9075
-1.8458 1.6460 12.9041
-6.4729 1.6412 14.4593
-8.5573 1.6388 16.3294
5.2327 1.6038 5.5516
-4.8663 1.6038 9.6475
7.5906 1.6038 11.8875
6.4577 1.6265 13.7775
4.0777 1.6038 15.5021
-3.8323 1.6376 18.8175
0.0498 1.5687 8.1425
2.5900 1.5835 10.8495
-1.7673 1.5986 12.8325
-2.3273 1.5687 14.5120
-8.6697 1.5687 16.2625
1.6934 1.5338 5.9375
5.5841 1.5338 9.9625
-3.1290 1.5461 12.0194
6.8777 1.5338 13.9193
-7.6123 1.5338 15.6842
-4.9173 1.4988 5.3403
4.9177 1.4988 9.1562
-7.4723 1.4988 11.4327
8.5927 1.5203 13.3575
5.0519 1.4988 14.9675
-4.4976 1.4988 18.2575
-8.3823 1.4638 7.8587
6.2647 1.4638 10.8375
7.8927 1.4638 12.5003
-5.3040 1.4640 14.2717
-6.8087 1.4638 15.9475
-6.9123 1.4288 5.6932
2.0839 1.4354 9.9429
-3.3980 1.4283 11.6198
8.7677 1.4288 13.2432
-0.0523 1.4288 14.6541
-6.5973 1.4288 17.8479
4.5757 1.3938 8.2825
2.5557 1.4011 10.7351
2.2227 1.3938 12.4967
8.6277 1.4135 14.2325
2.0127 1.4120 15.5975
-2.7823 1.3588 5.3039
-8.4904 1.3588 8.2825
-8.0247 1.3588 10.6275
1.8727 1.3588 12.2912
6.9477 1.3588 13.9653
-2.4635 1.3588 15.7725
-3.0623 1.3238 5.4388
-8.5223 1.3353 8.7375
7.3327 1.3450 10.8375
6.2827 1.3358 12.6575
-7.8573 1.3455 14.4775
-2.6773 1.3244 16.5775
7.0527 1.2889 5.8675
-4.2568 1.2888 9.6125
7.6127 1.3064 11.0475
9.0127 1.2958 13.1475
8.5227 1.2888 14.4885
-9.1691 1.2888 16.6825
7.1227 1.2538 5.7510
5.2677 1.2538 9.2939
-3.8660 1.2552 10.8205
8.5227 1.2538 12.5921
8.4877 1.2650 14.5125
-2.3273 1.2538 16.5285
-3.9830 1.2445 5.6584
-4.1749 1.2188 9.7175
-2.2573 1.2188 11.3605
9.0477 1.2442 13.3575
7.7047 1.2188 14.6525
-9.1093 1.2188 16.9275
-0.5486 1.1838 6.9875
2.6440 1.1838 10.6975
-1.6539 1.1838 12.5175
-6.5273 1.1838 14.3899
-7.5073 1.1838 16.0247
-6.3523 1.1488 5.3807
1.4877 1.1488 8.5393
-7.9973 1.1488 10.8795
6.6312 1.1488 12.5525
8.9888 1.1488 14.2675
-5.8814 1.1569 15.5846
-1.9423 1.1488 16.9625
7.0177 1.1138 5.3936
0.3142 1.1138 8.7025
-2.4673 1.1138 10.7317
2.4327 1.1241 12.6575
-6.9123 1.1138 14.3068
-1.9423 1.1476 15.5625
-2.7123 1.1138 17.1904
1.8377 1.0788 5.7213
5.4499 1.0788 9.5075
-3.7973 1.1134 11.3975
9.1177 1.0788 12.8446
-5.8623 1.0788 14.4448
3.0277 1.0788 15.4984
-1.8023 1.0844 17.3475
5.4341 1.0438 7.0225
7.4027 1.0728 10.3125
7.6127 1.0690 12.5175
-7.8573 1.0438 14.0230
7.9277 1.0438 14.9823
-1.5513 1.0536 16.9708
6.4927 1.0088 6.7981
0.7527 1.0100 10.0675
6.0027 1.0299 11.3625
7.0527 1.0248 12.8325
7.1227 1.0088 14.3080
-6.5111 1.0234 15.3419
-0.9969 1.0088 17.4525
-8.3473 1.0000 7.0225
5.4087 0.9738 9.8575
-4.0423 0.9838 10.8725
-6.5852 0.9738 12.7625
9.0013 0.9738 14.1275
-1.2705 0.9666 14.9649
-9.5723 1.0043 16.7525
7.1927 0.9387 6.1058
5.1977 0.9482 9.3675
5.5357 0.9387 10.5225
3.2962 0.9387 12.3075
9.6427 0.9452 13.7075
-2.0595 0.9433 14.8765
-1.7673 0.9387 16.6345
7.2627 0.9037 5.5498
4.7427 0.9073 9.1925
6.4208 0.9100 11.2190
-6.1845 0.9037 13.0425
-6.2473 0.9037 14.4501
3.5320 0.9037 15.3175
-8.6273 0.9037 17.0387
6.4927 0.8687 7.0567
-2.9480 0.8615 9.7913
-3.8323 0.8803 11.6075
8.6277 0.8742 13.3925
-2.2796 0.8745 14.6781
-1.6273 0.8687 15.4658
-3.7273 0.8687 17.6643
5.4553 0.8337 7.1275
-4.0738 0.8337 9.7525
5.9672 0.8337 11.9225
-5.3737 0.8337 13.8475
-7.2812 0.8337 14.9325
-7.6168 0.8337 17.0675
1.7138 0.7988 6.0075
4.5327 0.8214 9.0525
-3.9373 0.8122 11.4675
9.1177 0.7988 13.5268
-1.9768 0.8062 14.8445
-9.8523 0.8283 16.9975
3.6939 0.7752 5.5837
4.7842 0.7637 8.3875
-4.3573 0.7637 10.7318
1.9427 0.7637 12.8251
-9.0462 0.7637 14.4425
8.1027 0.7952 15.1425
-9.1173 0.7637 17.1651
4.2251 0.7402 5.5640
4.7443 0.7287 8.3875
5.2299 0.7287 10.3825
-6.4087 0.7287 12.9375
7.2627 0.7614 14.3375
-1.4188 0.7287 15.0725
-1.4523 0.7384 17.2425
-1.4173 0.6938 5.8320
2.1527 0.7190 9.0875
-1.9730 0.6938 11.3975
7.7877 0.7180 13.8475
7.8577 0.7055 14.8625
-6.9068 0.6916 16.3174
-3.5575 0.7033 18.0328
6.0237 0.6782 6.8472
-8.5617 0.6588 9.8575
-7.0739 0.6588 12.2375
-2.8960 0.6588 14.3025
-8.5208 0.6960 14.9981
-1.6623 0.6590 16.5425
-3.3815 0.6743 18.1870
7.0630 0.6237 6.7425
2.3627 0.6524 9.2625
-4.3454 0.6237 10.9425
3.0977 0.6380 13.0775
8.2077 0.6296 14.3375
2.4327 0.6338 15.2125
-8.8023 0.6351 17.4175
-4.6615 0.5889 5.7217
2.2927 0.5893 9.0175
-2.1523 0.6031 10.9075
-3.1323 0.6162 13.2175
9.2227 0.5888 14.4952
-1.9073 0.6069 15.5275
-8.3473 0.6171 17.5225
3.4495 0.5275 5.6196
4.8384 0.5538 8.0025
6.3795 0.5577 10.3955
1.6627 0.5785 12.7625
-9.6065 0.5538 14.3725
3.0627 0.5727 15.1075
-9.1873 0.5538 17.3330
3.3585 0.5225 5.5990
5.3377 0.5187 7.4210
-2.6684 0.5380 10.0636
1.0677 0.5187 12.0583
-5.0923 0.5512 14.1275
-8.2714 0.5175 14.8263
-8.6973 0.5242 16.1225
-5.1273 0.5187 17.9102
-1.0673 0.4837 6.2989
4.1265 0.4837 9.0875
0.7132 0.4837 11.1175
-5.6839 0.4837 13.3225
8.9777 0.4928 14.4775
-9.2795 0.4837 15.1075
-9.1173 0.4837 17.4562
2.0477 0.4493 5.6575
1.5776 0.4334 7.4859
-2.7712 0.4459 9.8624
1.1727 0.4831 12.3075
0.7877 0.4488 14.3659
-8.6049 0.4647 15.0603
-7.6123 0.4488 17.4213
-1.8023 0.4138 5.5231
4.5025 0.3643 7.2826
4.2177 0.4257 9.6125
3.5177 0.4470 11.5375
2.1527 0.4173 13.3925
-5.5473 0.4138 14.5251
-1.9773 0.4333 15.9125
-6.7373 0.4249 17.9075
1.9077 0.3826 6.0775
4.5744 0.3400 7.5515
6.5327 0.3788 10.4175
-0.9623 0.4045 12.6925
-6.7023 0.3788 14.2926
-5.5439 0.3976 15.6258
-4.5652 0.3788 17.7675
2.0127 0.3440 5.8675
4.5941 0.3339 7.5482
0.3326 0.3438 10.0675
-7.2273 0.3438 12.0650
-0.0873 0.3749 13.6725
-9.8173 0.3640 14.6525
-9.3623 0.3438 16.5221
-3.6911 0.3438 18.2575
3.8394 0.3130 6.2833
-0.2486 0.3088 8.0025
4.2877 0.3088 10.1969
-6.7723 0.3088 12.4708
0.8129 0.3088 14.0225
3.1677 0.3209 14.5825
-7.4803 0.2949 16.5064
-3.1673 0.3088 18.3352
4.5516 0.3004 6.8731
-8.7127 0.2738 8.8075
4.2177 0.2758 10.2775
-0.9973 0.2899 12.4825
2.1877 0.3052 13.8475
2.8877 0.3042 14.3725
-5.4821 0.2535 15.5510
-3.4473 0.2902 17.8725
-1.5573 0.2434 5.8325
-0.2623 0.2724 8.0375
3.7977 0.2387 10.2164
-1.1723 0.2616 11.9925
1.4527 0.2390 13.6025
-2.8873 0.2387 14.6226
-7.7202 0.2479 16.5600
-6.8773 0.2038 5.4178
5.8627 0.2043 7.3025
8.0327 0.2038 9.0176
-4.3573 0.2138 11.2925
4.1127 0.2068 13.2525
-6.7723 0.2038 14.3267
-6.0905 0.2225 15.4864
-3.7973 0.2230 17.6625
3.2936 0.1748 5.6359
4.7301 0.1516 7.6072
-8.5398 0.1688 9.7525
4.7427 0.1749 11.9225
4.3227 0.1775 13.1475
-10.2023 0.1872 14.5475
-9.3273 0.1688 16.7900
3.4330 0.1580 5.4383
4.2360 0.1408 7.0133
7.9575 0.1338 8.6325
6.7377 0.1338 11.2223
-5.0573 0.1512 13.4975
-8.8168 0.1338 14.9108
-3.0973 0.1338 16.8216
-3.3393 0.0987 5.4825
1.6977 0.0987 6.6850
7.4027 0.1302 8.1425
7.9755 0.0987 11.1525
-10.3423 0.0987 14.1907
-5.8364 0.0956 15.4048
-3.9023 0.0987 17.5105
6.9477 0.0637 5.6353
4.3512 0.1045 7.1958
6.5627 0.0637 9.2523
-0.6123 0.0976 12.2725
-8.6788 0.1036 14.9145
-6.8626 0.0789 16.3307
-6.2123 0.0287 5.3396
3.9242 0.0367 6.4250
7.2627 0.0287 8.1667
6.6708 0.0287 10.6975
-10.3073 0.0287 14.1687
-5.2167 0.0063 15.6985
-4.0366 0.0287 17.5575
6.9477 -0.0035 5.6925
-0.6123 0.0152 7.4775
-2.6439 -0.0063 9.7525
-4.5323 0.0118 13.5325
-9.6249 -0.0167 15.3783
-4.6023 -0.0063 17.6074
-1.3504 -0.0413 6.1825
7.8254 -0.0413 7.6875
-8.3823 -0.0413 10.0745
-6.0023 -0.0066 12.7975
-9.7823 -0.0344 15.2475
-4.1473 -0.0412 17.4175
-1.9773 -0.0763 5.5705
1.4762 -0.0763 7.4075
-2.1173 -0.0758 10.1025
-3.6978 -0.0895 14.1135
-6.3173 -0.0432 15.3175
-9.4258 -0.0763 17.3125
-3.7837 -0.1091 5.5437
7.7851 -0.1112 7.4075
-4.5323 -0.1112 9.6609
-6.1073 -0.0846 12.6575
-6.2460 -0.1111 15.2676
-9.6073 -0.1112 17.5575
-3.8876 -0.1459 5.5702
-0.8910 -0.1462 7.1975
6.5251 -0.1462 9.7875
-6.2473 -0.1200 12.5175
-9.7473 -0.1462 15.2839
-9.6073 -0.1462 17.6113
0.7895 -0.1698 5.7083
6.8077 -0.1810 8.0025
-0.3673 -0.1813 10.3125
-9.0123 -0.1813 14.1368
-4.7195 -0.1599 16.0537
2.7127 -0.2163 5.3372
1.3181 -0.2042 6.3542
-0.4832 -0.2163 8.4575
-0.8923 -0.1976 10.8725
-8.4523 -0.2163 15.1399
-9.3244 -0.2163 17.1725
0.8387 -0.2512 5.6925
6.0027 -0.2319 7.7925
-4.4973 -0.2512 9.5791
-4.6723 -0.2226 12.7975
-4.2173 -0.2512 15.3875
-8.4523 -0.2512 18.1657
1.5855 -0.2973 6.2702
6.5627 -0.2536 8.4575
-7.7173 -0.2862 11.0897
-9.7823 -0.2862 15.2239
-5.6796 -0.2862 17.5925
1.5917 -0.2982 6.1184
6.5277 -0.3022 8.1775
6.9277 -0.3212 10.9425
-6.4743 -0.3175 15.1609
-7.5073 -0.3212 17.2617
4.2918 -0.3543 5.9929
3.2052 -0.3563 8.2125
6.9754 -0.3563 10.9425
-9.7823 -0.3263 15.2475
-5.5123 -0.3563 17.5143
4.2937 -0.3715 6.0171
6.0677 -0.3913 8.4925
-7.0873 -0.3639 11.7475
-9.6073 -0.3698 15.4575
-2.9223 -0.4262 5.3456
-0.9973 -0.4258 7.5125
-1.7323 -0.3916 9.6825
-6.0375 -0.4260 14.6005
-9.1873 -0.4262 17.2163
-1.9773 -0.4362 5.9025
2.9570 -0.4612 8.5275
3.6870 -0.4895 12.1558
-9.6073 -0.4612 15.5408
-9.3973 -0.4612 17.9728
2.3944 -0.4963 6.2175
-1.0323 -0.4963 9.1241
3.7071 -0.4948 12.3750
-4.8123 -0.4776 16.4725
6.4577 -0.5043 5.3775
-8.2773 -0.5294 6.9875
-2.5373 -0.5016 9.2625
-4.7703 -0.5355 14.4238
-4.8473 -0.5305 16.5075
-6.7723 -0.5662 5.5452
-1.0582 -0.5662 7.8975
8.2427 -0.5662 10.2111
-10.0273 -0.5330 14.5475
-5.5123 -0.5659 16.9625
3.7994 -0.5532 5.6361
3.4353 -0.6012 8.1075
6.9827 -0.5939 10.6625
-5.2323 -0.6012 15.0811
-8.1433 -0.6012 17.7675
4.2747 -0.6565 6.3194
-1.6273 -0.6363 9.1557
-4.9666 -0.6412 14.3304
-6.2473 -0.6363 16.0378
-2.3973 -0.6712 5.6888
3.4827 -0.6712 8.1760
-7.3673 -0.6504 11.1175
-10.0623 -0.6712 15.0466
-8.1955 -0.6712 17.7675
-1.4173 -0.6843 6.3575
-1.4523 -0.7063 9.3292
-5.4144 -0.7225 14.2549
-10.1673 -0.6994 15.7725
-1.8373 -0.7314 5.8325
8.1027 -0.7413 7.7242
7.6895 -0.7413 10.6275
-6.9473 -0.7336 14.3725
-6.0023 -0.7413 16.7539
2.4513 -0.7762 6.0896
-2.1173 -0.7717 8.7025
4.0077 -0.7737 11.8175
-9.8523 -0.7763 15.7591
-6.0371 -0.8113 5.5175
-1.1723 -0.8051 6.4275
-3.7273 -0.7870 9.0525
-5.5821 -0.8121 14.2471
-5.5473 -0.7917 16.3675
2.8814 -0.8462 5.7275
1.7327 -0.8462 6.5479
-7.9623 -0.8450 9.9975
-5.1273 -0.8339 14.4425
-6.1784 -0.8462 16.7525
-1.6623 -0.8527 5.7975
5.6225 -0.8813 8.0725
8.1024 -0.8813 10.1375
-6.9473 -0.8813 14.3595
-8.2423 -0.8813 16.6838
-1.7323 -0.8994 5.6225
4.0777 -0.9162 7.6559
3.8915 -0.8687 10.5086
-7.2849 -0.9165 14.9472
4.1155 -0.9512 5.3425
4.2997 -0.9400 6.4866
-8.1926 -0.9512 9.0525
-5.7460 -0.9511 14.3139
-8.6623 -0.9512 16.8919
0.8789 -0.9839 6.1747
-2.6073 -0.9656 8.3875
3.4782 -1.0010 10.5805
-7.9266 -0.9728 15.1847
5.2677 -1.0212 5.5094
-2.2051 -1.0212 7.3725
-1.7323 -1.0212 8.7518
-6.7373 -1.0212 14.2890
-8.6973 -1.0212 16.8124
-1.1723 -1.0446 5.8325
3.6845 -1.0635 7.5763
-7.8223 -1.0322 9.6825
-6.3523 -1.0520 14.7575
-6.9823 -1.0231 16.8925
0.6872 -1.0912 6.4275
-2.7823 -1.0865 7.9325
7.8252 -1.0912 10.1725
-9.0283 -1.0904 15.2873
6.5277 -1.1222 5.4125
2.4152 -1.1205 6.4680
-2.0473 -1.0926 7.9675
6.8777 -1.1262 9.9766
-8.4689 -1.1353 14.9999
-2.3273 -1.1612 5.3091
1.3477 -1.1612 6.4450
2.3643 -1.1612 8.4575
4.1793 -1.1612 11.3625
-10.1673 -1.1612 15.8667
-3.0190 -1.1962 5.7275
3.8663 -1.1973 7.4654
3.4991 -1.1708 8.9451
3.5177 -1.1628 10.9075
-9.3107 -1.1962 15.4225
0.3045 -1.2231 5.6482
-7.7873 -1.2077 7.1275
3.6072 -1.2380 9.0215
3.4794 -1.2161 10.5798
-10.8287 -1.2312 15.8075
-4.7773 -1.2641 5.7975
-7.7523 -1.2407 7.1975
3.8181 -1.2654 9.2110
-6.6323 -1.2559 14.4425
-6.5623 -1.2507 16.4375
-4.4973 -1.3012 5.9007
-7.7115 -1.3012 7.4775
3.9215 -1.3094 9.2822
-6.7723 -1.2670 14.5475
-7.8923 -1.2667 17.2425
2.1877 -1.3362 6.3755
8.2427 -1.3362 8.0667
3.5300 -1.3418 10.4499
-7.9273 -1.3160 16.4375
-1.0202 -1.3712 5.9375
4.8127 -1.3712 7.6089
4.1126 -1.3895 9.4578
-8.1373 -1.3378 15.0375
2.3977 -1.4062 5.6771
3.9940 -1.3997 6.7303
-7.5423 -1.4062 8.4225
4.5480 -1.4253 9.9362
-8.6973 -1.3720 16.9625
-4.2810 -1.4412 6.2875
4.2115 -1.4312 7.8916
4.2358 -1.4271 9.4409
-8.7379 -1.4437 15.2572
1.7327 -1.4470 5.8325
-7.2623 -1.4718 7.2675
-3.8314 -1.4762 8.7025
4.5791 -1.4817 9.9221
-7.4023 -1.4762 16.9475
7.3778 -1.5112 6.2875
4.2877 -1.5112 7.3894
6.5450 -1.5112 9.1575
-9.9922 -1.5112 14.7925
-5.4423 -1.5462 5.8252
-6.8781 -1.5462 6.8125
-7.0873 -1.5442 8.1775
3.4550 -1.5473 10.2316
-8.9773 -1.5462 17.3937
-4.0688 -1.5812 6.4625
2.5420 -1.5812 7.6525
-4.8839 -1.5812 9.3675
-7.4023 -1.5757 16.7875
3.3544 -1.5993 6.0745
4.0390 -1.6416 7.4829
4.4058 -1.6203 9.1276
-8.9073 -1.6162 15.2112
-3.4823 -1.6512 5.9645
2.9577 -1.6512 7.3497
-6.4223 -1.6215 8.8425
-9.8873 -1.6186 14.9325
-3.5173 -1.6862 5.9845
-1.9773 -1.6745 7.1975
8.1027 -1.6711 8.5975
-8.9773 -1.6862 14.3869
7.1227 -1.6893 6.0425
4.2177 -1.7000 7.1975
-4.1204 -1.7213 8.8075
-9.8948 -1.7213 14.6875
3.3465 -1.7554 6.4148
-6.8166 -1.7562 7.7575
4.6628 -1.7562 10.2425
6.8077 -1.7912 5.8694
-6.7023 -1.7912 7.8253
4.7214 -1.7775 9.5176
-6.4722 -1.8262 6.0775
5.0927 -1.8262 7.6265
6.8077 -1.8139 9.1575
6.5977 -1.8612 5.7761
7.9007 -1.8612 7.4425
7.5777 -1.8349 9.1225
3.2364 -1.8963 5.5875
-1.3123 -1.8683 7.1975
-5.8782 -1.8963 8.8075
-1.4173 -1.9312 5.3817
7.4027 -1.9301 6.5325
-6.0373 -1.8970 7.8275
-5.4073 -1.9300 9.1575
4.3227 -1.9331 5.9375
-6.8037 -1.9662 7.1975
-4.1473 -1.9628 8.6325
-5.2673 -2.0012 5.4565
-4.4623 -2.0012 6.5753
7.8927 -1.9774 7.7925
4.4353 -2.0012 10.5225
0.7741 -2.0362 6.1475
-6.7373 -2.0272 7.1625
-5.4773 -2.0035 8.8075
-6.4223 -2.0389 5.6925
-1.4173 -2.0487 6.9525
6.0868 -2.0712 8.2475
-9.5723 -2.0712 14.3922
-3.8323 -2.1063 6.2726
5.3377 -2.1060 7.5475
7.3677 -2.0724 8.7375
-6.5273 -2.1335 5.7975
-2.8873 -2.1412 6.9759
-4.2873 -2.1362 8.0025
-9.3273 -2.1374 14.6175
1.8727 -2.1762 6.3909
5.5827 -2.1525 7.7225
-8.7119 -2.1762 14.0925
6.6677 -2.2110 6.0775
7.6006 -2.2112 7.3025
-9.1228 -2.2112 14.1975
6.8022 -2.2462 6.1825
-4.1823 -2.2462 7.7337
-5.1973 -2.2715 5.3775
0.7527 -2.2813 6.3278
-5.6523 -2.2551 7.8625
5.5477 -2.2986 5.9375
-6.3873 -2.3162 7.2403
3.9027 -2.3055 10.5575
0.7463 -2.3512 6.2875
-5.8273 -2.3450 7.6175
3.1327 -2.3862 5.5978
-2.7266 -2.3862 6.7425
4.4852 -2.3862 10.2425
-2.4323 -2.4202 6.4625
3.1875 -2.4212 7.9325
0.7527 -2.4562 6.1127
6.0027 -2.4447 7.4775
-4.7773 -2.4913 5.6566
5.5127 -2.4913 6.8498
4.0777 -2.4913 10.4302
-3.5173 -2.5262 6.4304
-4.1123 -2.5262 7.6707
-1.9773 -2.5435 5.9025
3.6927 -2.5288 7.1275
1.1377 -2.5910 5.7625
3.4127 -2.5898 8.9125
-4.4973 -2.6137 7.8625
3.3427 -2.6663 7.3341
-6.4223 -2.6739 7.1975
-3.8323 -2.7362 7.0894
-3.9723 -2.7544 7.4075
3.4827 -2.8055 7.6875
-4.2873 -2.8146 7.7225
4.6027 -2.8453 9.0175
-4.5323 -2.9462 5.6832
3.7977 -2.9812 8.1784
-6.4573 -3.0232 5.4475
-4.3223 -3.0586 6.9875
-4.9523 -3.1212 7.6840
-6.4573 -3.1912 6.9542
-4.5648 -3.2612 6.9175
-4.5673 -3.3051 5.5875
-4.9173 -3.3558 6.7075
-5.1623 -3.3989 7.5125
-5.1973 -3.4713 7.2970
-5.5823 -3.5550 5.6925
-5.5064 -3.6463 7.4075
-5.4073 -3.7310 6.3925
-6.4246 -3.8562 6.7425
-6.2769 -4.1012 7.1625
-2.2749 0.9372 14.7241
3.6270 0.0026 5.9452
-1.7673 -0.8813 5.5700
4.0616 -1.4888 7.9442
4.3770 -2.0292 7.9644
